# .PCD v0.7 - Point Cloud Data file format
VERSION 0.7
FIELDS x y z
SIZE 4 4 4
TYPE F F F
COUNT 1 1 1
WIDTH 161
HEIGHT 1
VIEWPOINT 0 0 0 1 0 0 0
POINTS 161
DATA ascii
-1.1717789 -0.13045047 0.073999643
-1.1281492 -0.14510526 0.073647127
-1.0738295 -0.146164 0.073486298
-0.99386853 -0.10645035 0.073618263
-1.2508372 -1.4364719e-05 0.083277717
-1.2465043 -0.025108375 0.073653638
-0.95373201 -0.026872911 0.074193873
-1.2447556 0.029183278 0.073695913
-0.95594579 0.030531321 0.073951691
-0.97139156 0.072778717 0.074175209
-1.1236173 0.14639522 0.074026667
-1.1010802 0.15018815 0.07408344
-1.1129383 -0.1511725 0.12524836
-1.0886383 -0.15062246 0.12523726
-1.2067068 -0.10386024 0.12851842
-1.1741238 -0.12878644 0.12582108
-1.1284527 -0.14506938 0.12367078
-1.0738298 -0.14618331 0.12371516
-1.0277321 -0.13035555 0.12564652
-0.99381757 -0.1064413 0.12598987
-1.2272627 -0.077328332 0.12586716
-0.97092831 -0.073702782 0.12538402
-1.2465326 -0.02537265 0.12393273
-0.95386964 -0.027024023 0.12592213
-0.94965333 -0.0041774362 0.12592852
-1.2505503 0.0059638591 0.12348384
-1.2447035 0.028941425 0.12391866
-0.95590103 0.030698944 0.1259755
-0.94978154 0.0039206566 0.12594619
-1.2279497 0.074526004 0.12341075
-0.97031641 0.071038261 0.12564264
-1.2063541 0.10542766 0.12291874
-1.1752706 0.1276526 0.12347443
-1.1234456 0.14644131 0.12422579
-1.0712496 0.14477831 0.12421554
-1.023356 0.12628381 0.12435076
-0.99593866 0.10760139 0.12420307
-1.1011716 0.15021868 0.12404624
-1.1128192 -0.15121597 0.17443992
-1.0885407 -0.15064834 0.17411366
-1.2085068 -0.10275706 0.17411014
-1.1281364 -0.14518127 0.17296374
-1.0738322 -0.14620259 0.17393431
-1.0276023 -0.13032393 0.17428343
-0.99376947 -0.10643067 0.17411382
-1.2293799 -0.072668679 0.17451382
-0.97090548 -0.073769107 0.17440702
-1.2500107 -0.0099305511 0.17681931
-1.246158 -0.025643241 0.17342867
-0.95390308 -0.027559824 0.17484602
-0.94960594 -0.0040956214 0.17412505
-1.2505745 0.0059944899 0.17346334
-1.2450341 0.027732026 0.17274441
-0.95584136 0.030732816 0.17421716
-0.94974267 0.0040054796 0.17391805
-1.226364 0.07677862 0.17301187
-0.97053266 0.071204104 0.17358886
-1.2057976 0.10568842 0.17245755
-1.1765106 0.12693366 0.17526324
-1.12336 0.14648138 0.17403845
-1.0717237 0.14471774 0.17426771
-1.0235597 0.12636749 0.17423901
-0.99611759 0.10778004 0.17407128
-1.1012638 0.15024954 0.17446709
-1.1126989 -0.15126006 0.22441918
-1.0884397 -0.15067518 0.22479241
-1.208163 -0.10420676 0.22395369
-1.1735235 -0.12925406 0.22376218
-1.1249067 -0.14606638 0.22338416
-1.073729 -0.14625865 0.22356151
-1.0272539 -0.13010365 0.22488864
-0.99393582 -0.10679125 0.22518508
-1.2299529 -0.071663328 0.22412251
-0.9714635 -0.074633285 0.2253233
-1.2503299 -0.0067495257 0.22189121
-1.2461565 -0.025456751 0.22296406
-0.95400083 -0.027675079 0.22590727
-0.94957101 -0.0040562199 0.2259299
-1.2507699 0.0053790389 0.22321196
-1.2455945 0.025414987 0.22297201
-0.95583582 0.030691693 0.22469534
-0.94970191 0.0039053797 0.22627883
-1.2264539 0.076494351 0.22334786
-0.97034895 0.070965774 0.22515219
-1.2060152 0.10560696 0.21737528
-1.1777202 0.12619936 0.22339143
-1.1242596 0.14653681 0.2236156
-1.0729036 0.14489917 0.22402942
-1.0233613 0.12642252 0.22425672
-0.9960416 0.10797609 0.22416303
-1.1007535 0.1501728 0.223031
-1.112578 -0.15130423 0.27436861
-1.0883398 -0.15070173 0.27482966
-1.2075269 -0.1046118 0.27329791
-1.1731945 -0.12983927 0.27414796
-1.12576 -0.14600959 0.27349827
-1.0730784 -0.14626868 0.27424335
-1.0278496 -0.1305252 0.27464342
-0.99394143 -0.10687447 0.27476895
-1.2286865 -0.074086443 0.26872462
-0.97114366 -0.074405916 0.27451664
-1.2465004 -0.024371438 0.27107081
-0.95485973 -0.030233506 0.27456835
-0.94952905 -0.003996294 0.27400583
-1.2458993 0.024614614 0.2724838
-0.95581526 0.030549021 0.27485526
-0.94966185 0.0039716782 0.27340269
-1.2268009 0.076268606 0.27310768
-0.97059602 0.071406387 0.27487224
-1.2032578 0.10726611 0.27273184
-1.174636 0.12808315 0.27062747
-1.1244076 0.14668627 0.27248639
-1.0730709 0.14473949 0.27325213
-1.0230142 0.12593411 0.27304775
-0.9964655 0.10795293 0.27363235
-1.1004496 0.1501672 0.27250952
-1.091889 0.15004927 0.25480324
-1.1124572 -0.15134852 0.32448956
-1.2089367 -0.10894635 0.32361555
-1.1352381 -0.14736202 0.32174656
-1.0665936 -0.1460485 0.32211718
-1.0262715 -0.13000359 0.32438371
-0.99360925 -0.10659514 0.32488462
-0.97090697 -0.073538691 0.32437369
-0.95488584 -0.030409805 0.32526833
-0.94947416 -0.0041337167 0.32612121
-0.95579779 0.030593818 0.32509276
-0.949619 0.0039512692 0.32585579
-0.97097957 0.071675152 0.32595018
-1.123652 0.14649664 0.3159534
-1.0225066 0.12496626 0.32386598
-0.99650216 0.10692944 0.32273233
-1.1002085 0.15012556 0.30592757
-1.1133759 -0.15129013 0.37155101
-1.0635555 -0.14608876 0.37443528
-1.0234097 -0.12863106 0.37557757
-0.99384552 -0.10685854 0.37509796
-0.97087312 -0.073586285 0.37479079
-0.95490319 -0.03033692 0.374836
-0.95577675 0.030499261 0.37399569
-0.94958371 0.0038769902 0.37407181
-0.97275454 0.074231677 0.3742325
-1.1197302 0.14481708 0.37333539
-1.0220439 0.12386268 0.37427762
-1.0915514 -0.15113212 0.42469779
-1.0642313 -0.14631395 0.42466766
-1.0237499 -0.12886114 0.42328873
-0.99379772 -0.10685093 0.4251155
-0.97130638 -0.074261308 0.4245263
-0.95524293 -0.030706473 0.42513505
-0.95573413 0.030599397 0.4255392
-0.94953823 0.0039174436 0.42520863
-1.0224464 0.12405564 0.42461938
-0.99496669 0.10429601 0.42490125
-1.0654063 -0.14667122 0.46412617
-0.99401748 -0.10687079 0.47365576
-0.96989226 -0.07277222 0.47324997
-0.94962871 -0.0080006737 0.47286111
-0.95576119 0.029972887 0.47414595
-0.94949275 0.0039342283 0.47346154
-0.97280437 0.074158967 0.4725028
