# .PCD v0.7 - Point Cloud Data file format
VERSION 0.7
FIELDS x y z
SIZE 4 4 4
TYPE F F F
COUNT 1 1 1
WIDTH 159
HEIGHT 1
VIEWPOINT 0 0 0 1 0 0 0
POINTS 159
DATA ascii
-1.1155399 0.94857502 0.073887981
-1.0815094 0.94845301 0.072975203
-1.2068843 0.99341828 0.076049916
-1.1770947 0.97136271 0.073686704
-1.1252546 0.95374864 0.074338712
-1.0706457 0.9552148 0.074377052
-1.0223302 0.97186935 0.074473567
-0.99119073 0.99347705 0.073514976
-1.2471098 1.0669405 0.0765284
-0.95525318 1.0724357 0.073579118
-0.9489637 1.0842785 0.071570799
-0.95392174 1.1244732 0.07353235
-0.97647661 1.1801037 0.073314741
-1.1186775 0.94895405 0.12691124
-1.0826955 0.94840437 0.12536082
-1.2067695 0.99357611 0.12648317
-1.1765441 0.97119433 0.12647666
-1.1250408 0.9538089 0.12494881
-1.0708934 0.95512617 0.12510687
-1.0219743 0.97240746 0.12506127
-0.99088323 0.99380964 0.12446751
-1.2299097 1.0252115 0.12546173
-0.97004056 1.0253023 0.1251801
-1.2514503 1.0865782 0.12481208
-1.2475154 1.068743 0.12461029
-0.95521861 1.0720017 0.1260753
-0.94894385 1.0842324 0.1220783
-0.95385188 1.1244426 0.1239013
-0.94930255 1.1101822 0.12193599
-1.2340858 1.1676592 0.12640966
-0.97646976 1.1801695 0.12360793
-1.1224715 1.2428954 0.12183397
-1.0211729 1.2229819 0.12357104
-0.99490803 1.2046415 0.12388108
-1.11901 0.9489252 0.17550713
-1.081272 0.94838321 0.17582269
-1.2072967 0.99364871 0.17708482
-1.1757418 0.97033268 0.17512061
-1.1251757 0.95378113 0.17493552
-1.0710717 0.95500982 0.17484571
-1.0224078 0.97154707 0.17481646
-0.99117005 0.99342769 0.17341086
-1.2299744 1.0253054 0.17447218
-0.9704566 1.0250279 0.17401607
-1.2467953 1.0648731 0.1752179
-0.95524204 1.0724581 0.1749122
-0.9488495 1.0852579 0.17264181
-0.9541319 1.1243075 0.17404762
-0.94926721 1.1101902 0.17221273
-1.2336761 1.1684915 0.17611544
-0.97645527 1.1802083 0.17358555
-1.1223646 1.2429199 0.17147234
-1.0202968 1.2224058 0.17433715
-0.99505788 1.2047985 0.17337094
-1.1200784 0.94888163 0.22425286
-1.0830494 0.94854569 0.226007
-1.2073174 0.99388748 0.22565231
-1.1758226 0.97036421 0.22475483
-1.1252126 0.9537133 0.22465265
-1.0739472 0.95418161 0.2236248
-1.0219918 0.97217458 0.22484347
-0.99136478 0.99335098 0.22395596
-1.230081 1.0253745 0.22459972
-0.97074443 1.0246413 0.22450051
-1.2469368 1.0658088 0.22438106
-0.95479125 1.0725442 0.22506623
-0.94877106 1.0857277 0.22221498
-0.95481604 1.1278328 0.22460102
-0.94911861 1.1093483 0.22252871
-0.97605515 1.179888 0.22304152
-1.1222565 1.2429451 0.22183649
-1.0212934 1.2231505 0.22112614
-0.99490011 1.204458 0.22369146
-1.1193666 0.94877696 0.27332145
-1.0824214 0.94883204 0.27291116
-1.2071818 0.99358958 0.27477115
-1.1762849 0.97038519 0.27462521
-1.1253848 0.95371383 0.2743842
-1.0703487 0.95515221 0.2742072
-1.0222887 0.97160965 0.27443266
-0.99170738 0.99301779 0.27312568
-1.2301625 1.0254275 0.27463737
-0.97116172 1.0239931 0.27240896
-1.251145 1.0818716 0.27519792
-1.2471061 1.0667424 0.27480435
-0.95491952 1.0719603 0.27374989
-0.94880754 1.0855403 0.2721628
-0.95515436 1.1284388 0.27367947
-0.94908828 1.1098994 0.27258188
-1.1221534 1.242969 0.26973277
-0.99373609 1.2029457 0.27371967
-1.1191474 0.94872606 0.32475266
-1.081304 0.9487831 0.32599342
-1.2093781 0.99527997 0.32617435
-1.1762379 0.97017455 0.3245362
-1.1249375 0.95335037 0.32501999
-1.0738785 0.95357621 0.32666165
-1.022244 0.97169429 0.32657933
-0.99189931 0.99243164 0.32484752
-1.2304835 1.0257416 0.3250117
-1.2513109 1.0819671 0.32631865
-1.2468652 1.0648681 0.32565033
-0.95462525 1.0717731 0.32402304
-0.94884902 1.0847763 0.32359356
-0.95492941 1.1262081 0.32434222
-0.94893485 1.108875 0.32193282
-0.97175229 1.1735588 0.32286245
-1.1220305 1.2429975 0.32698852
-1.0226526 1.2238739 0.32323804
-0.99379271 1.2026701 0.32397464
-1.1189487 0.94868708 0.37662494
-1.0824423 0.94878519 0.37485117
-1.2077332 0.99396265 0.37591821
-1.1760167 0.96939439 0.37492332
-1.1249058 0.95326746 0.37649128
-1.0739295 0.95349222 0.3758387
-1.0215226 0.97190106 0.3752133
-0.99150354 0.99246001 0.37492266
-1.2311913 1.0268258 0.37613323
-0.97141325 1.0239884 0.37505105
-1.2511319 1.0816925 0.3758437
-1.2474163 1.0676001 0.37724674
-0.95445973 1.0723407 0.37456676
-0.94876415 1.0856868 0.37218627
-0.95443666 1.1250019 0.37336636
-0.94889259 1.1088059 0.37254837
-0.9717381 1.1735148 0.37303522
-1.1219174 1.2430236 0.37952206
-1.0229352 1.2240225 0.37231815
-0.9938038 1.2027838 0.37403333
-1.1192865 0.94868189 0.42549157
-1.0813687 0.9487462 0.42417774
-1.2086555 0.99419677 0.42441392
-1.1758935 0.96943808 0.42542854
-1.1248956 0.9532361 0.42620224
-1.073949 0.95376587 0.42514801
-1.0223621 0.97153598 0.42417568
-0.99159771 0.99231637 0.42351475
-1.2311734 1.0269142 0.42556608
-0.97158843 1.0233672 0.4241989
-1.2477109 1.0690354 0.4257946
-0.9545759 1.0727355 0.42481387
-0.94881737 1.0853399 0.42199048
-0.95447111 1.1266729 0.4230881
-0.94890314 1.1095622 0.42389327
-0.97167313 1.1734607 0.42285523
-1.0234989 1.2243539 0.42221087
-0.99516565 1.2041219 0.42315635
-1.1193504 0.94866037 0.47337079
-1.0817813 0.94856721 0.4765121
-1.2160604 0.99628866 0.47438827
-1.174639 0.96621424 0.47599593
-1.1432073 0.95262605 0.47479472
-1.0652791 0.9537608 0.47375298
-1.0223634 0.97078884 0.47494119
-0.99252218 0.9920283 0.47464564
-0.97131097 1.0239445 0.4737663
-0.94889385 1.1092454 0.47207084
-0.97185796 1.1740689 0.47278085
