# .PCD v0.7 - Point Cloud Data file format
VERSION 0.7
FIELDS x y z
SIZE 4 4 4
TYPE F F F
COUNT 1 1 1
WIDTH 219
HEIGHT 1
VIEWPOINT 0 0 0 1 0 0 0
POINTS 219
DATA ascii
1.127993 0.95516539 0.029738961
1.0929915 0.94853055 0.070896402
1.112584 0.94908309 0.070573077
0.99410194 0.99338031 0.075028449
1.0231621 0.97441041 0.074603207
1.0703179 0.95653403 0.074439883
1.126971 0.95516163 0.075146019
1.1749892 0.97315496 0.073544011
1.2085919 0.99788225 0.072392099
0.97305989 1.0226625 0.075017132
1.2256655 1.0240937 0.074160829
0.94884372 1.0853744 0.074692503
0.95275503 1.0741975 0.074845053
1.2464759 1.0763508 0.07190603
0.94889426 1.1144979 0.074036799
0.95252907 1.1250187 0.074665457
1.245315 1.1256167 0.070624664
0.9687807 1.1741353 0.074562505
1.2260189 1.1782715 0.073217213
0.99150801 1.2074362 0.075668603
1.022786 1.2291281 0.073155336
1.0746324 1.2466042 0.075040095
1.1241918 1.2472304 0.074747026
1.173014 1.2304115 0.074879646
1.2061394 1.2068564 0.074460626
1.0970132 1.2508974 0.076932788
1.1125846 1.2504103 0.074860133
1.0931374 0.94850934 0.12164181
1.113179 0.94913626 0.12114879
0.99402976 0.99323452 0.12435459
1.0231 0.97432572 0.12515461
1.0702257 0.95663071 0.12452364
1.1268423 0.95511609 0.12477247
1.1753582 0.97328651 0.12381627
1.2061493 0.99499136 0.12062929
0.97349089 1.0224659 0.12530005
1.2261342 1.0245001 0.12330417
0.94894379 1.0846565 0.12460237
0.95270121 1.0740807 0.12530021
1.2464974 1.0766952 0.12186412
0.94892323 1.1146755 0.12468743
0.95270342 1.1265254 0.12563495
1.2456306 1.1249468 0.12152144
0.96841878 1.1737912 0.12451102
1.2261325 1.1776509 0.12272927
0.99172848 1.2082106 0.12415737
1.02288 1.2290019 0.12328571
1.0743549 1.2465913 0.12477183
1.1243885 1.2472873 0.12466961
1.1745445 1.2291306 0.12490018
1.2064091 1.2066166 0.12450579
1.0977165 1.2508795 0.12639591
1.112316 1.2505226 0.1232776
1.0931756 0.94852245 0.17139813
1.1131624 0.94914454 0.17112753
0.99367958 0.99353594 0.17580824
1.0230787 0.97427201 0.17544268
1.0699712 0.95671254 0.17514376
1.1262909 0.95484835 0.17448716
1.1745189 0.97288013 0.17355424
1.2054514 0.99412531 0.1720047
0.97358769 1.0220129 0.17512614
1.2259423 1.0242397 0.17224528
0.94887084 1.0846422 0.17537543
0.95265496 1.0739007 0.1754425
1.2466208 1.0775014 0.17164101
0.94892722 1.1147714 0.17504202
0.95257682 1.1261638 0.17503218
1.2454487 1.1257393 0.17169181
0.96871263 1.174101 0.1745595
1.2264646 1.1776584 0.17287792
0.99172163 1.2075311 0.17366518
1.0225923 1.2287741 0.17439547
1.0743175 1.2466637 0.17492738
1.1246065 1.247283 0.17484115
1.175826 1.2281621 0.17414258
1.2063751 1.2066028 0.17485212
1.097941 1.2507217 0.17614689
1.1060406 1.250699 0.17670234
1.0936124 0.94840223 0.22367211
1.1125859 0.94908172 0.22275169
0.99343723 0.99353492 0.2255054
1.0230287 0.97438937 0.22562012
1.0699544 0.9566462 0.22561139
1.1273826 0.9550941 0.22390062
1.174593 0.97285849 0.22370708
1.2052822 0.99387068 0.22205095
0.97365987 1.0216829 0.2242838
1.2244501 1.021732 0.22309712
0.94880939 1.0848643 0.22468856
0.95257819 1.0740576 0.22541025
1.2465882 1.0770328 0.22187316
0.94886589 1.1148564 0.22510052
0.95260358 1.1269386 0.22489749
1.2457035 1.1242729 0.22175862
0.96870607 1.1738735 0.22524798
1.2265444 1.1774985 0.2227058
0.99201685 1.206956 0.22487281
1.0217009 1.2278886 0.22350031
1.0740734 1.2466792 0.22475208
1.1244644 1.2473167 0.22462441
1.1752006 1.2286752 0.22475204
1.2061942 1.2068311 0.22216317
1.0982292 1.250664 0.22548099
1.106714 1.2506543 0.22587736
1.09342 0.94850796 0.27131349
1.1132689 0.94908321 0.27130878
0.99305356 0.99362105 0.2758916
1.0227727 0.97440308 0.27584514
1.0700009 0.95676672 0.27527806
1.1279404 0.95520788 0.27466413
1.1747344 0.97284538 0.27352077
1.205107 0.993572 0.27012932
0.97382408 1.0215347 0.2750628
1.2253133 1.0231299 0.27391362
0.9486962 1.084879 0.27454087
0.95256495 1.0740525 0.27512378
1.2466434 1.0770239 0.27163196
0.9488554 1.1150537 0.2758078
0.9530986 1.1281155 0.27510154
1.2456914 1.1247582 0.27164021
0.96864676 1.1740727 0.27502546
1.2260039 1.1779358 0.27106982
0.99210626 1.2073542 0.27227369
1.0194851 1.2266347 0.26982751
1.0733012 1.2464796 0.26399481
1.124465 1.2476387 0.26740673
1.1761662 1.2277681 0.26954064
1.2049167 1.2082901 0.26668105
1.097468 1.2511537 0.27261114
1.1094123 1.251284 0.27814564
1.093647 0.94845563 0.32265407
1.1126802 0.94902772 0.31953061
0.99285799 0.99364692 0.32582229
1.0227469 0.97438926 0.32522839
1.0701531 0.95677668 0.32481101
1.1264188 0.9547863 0.32375827
1.1755112 0.97355181 0.32276469
1.2043017 0.9936794 0.31957084
0.97384584 1.0212415 0.32513201
1.2247667 1.0232785 0.32239333
0.94864351 1.0850021 0.32462883
0.9525032 1.0740542 0.32494786
1.2467283 1.0775748 0.31278116
0.94879788 1.1151087 0.32455218
0.95203394 1.1269494 0.32507911
1.2455205 1.125872 0.31602138
0.96751475 1.1737444 0.32458311
1.2243509 1.1782993 0.31784007
0.99195898 1.2093656 0.32417244
1.0179055 1.2288342 0.32533708
1.1240799 1.2498658 0.32233515
1.1802224 1.2234333 0.32268435
1.0974566 1.2518296 0.32299003
1.1098139 1.2512465 0.33242443
0.99213326 0.99400002 0.37427014
1.0226294 0.97455591 0.3751941
1.0706078 0.95691669 0.37472051
1.1242679 0.95492333 0.37479973
1.1767398 0.97591281 0.3754878
1.2051601 0.99734724 0.37427077
0.9736039 1.0213083 0.3751502
1.2217288 1.0212725 0.37432453
0.94857115 1.0852112 0.37398112
0.95226455 1.0735751 0.37486127
0.94870442 1.1149632 0.37572548
0.95220786 1.1316583 0.37530661
0.968575 1.1758202 0.37635008
0.991871 1.209214 0.37338477
1.0142046 1.2265183 0.37293187
1.1244828 1.249828 0.37684578
1.1534655 1.2421749 0.37816194
1.0976753 1.2518603 0.37200072
1.1100926 1.2512203 0.37008151
0.99171084 0.99414653 0.42613822
1.0225097 0.97470027 0.42546001
1.0708131 0.95677173 0.42417413
1.1243182 0.95490998 0.42533284
1.1760936 0.97550642 0.42541933
1.2051899 0.99736136 0.42406613
0.97353137 1.0213351 0.42483911
1.2215889 1.0210936 0.4231703
0.94862723 1.08524 0.42469543
0.95256543 1.0713553 0.42433223
0.94858688 1.1148268 0.4255906
0.95228845 1.1318554 0.42436916
0.96887887 1.1765627 0.42523265
0.99205005 1.2094995 0.42364913
1.0127141 1.2255737 0.42573404
0.99153441 0.99426466 0.47485468
1.0224527 0.97472703 0.47499865
1.0703199 0.95707548 0.47479138
1.1260389 0.95560414 0.47493285
1.176463 0.97580642 0.47477496
1.205308 0.99746054 0.47365981
0.97294319 1.0222001 0.47544861
1.2227881 1.0233303 0.47434407
0.94872797 1.0849487 0.47504094
0.95280629 1.0687082 0.47431931
0.94840086 1.1148543 0.47641164
0.95176727 1.1327102 0.47531986
0.96787548 1.1763519 0.47339836
0.99220121 1.2096709 0.47439161
1.0132562 1.2258773 0.47405174
0.99205858 0.99334693 0.50791353
1.0216185 0.97548592 0.50746483
1.0732194 0.95595288 0.50817966
1.1278499 0.95600998 0.507743
1.1769572 0.97566849 0.50811684
1.205829 0.99789059 0.50827348
0.97184658 1.0227748 0.50814813
1.2235739 1.0253671 0.50618541
0.94871271 1.0820227 0.50699228
0.95244122 1.0657659 0.50702852
0.94852746 1.1176316 0.50829852
0.95224708 1.1364759 0.50646877
0.96752912 1.1761975 0.50792623
0.99263114 1.2094587 0.50781447
1.0149853 1.2274473 0.50616646
