# .PCD v0.7 - Point Cloud Data file format
VERSION 0.7
FIELDS x y z
SIZE 4 4 4
TYPE F F F
COUNT 1 1 1
WIDTH 1432
HEIGHT 1
VIEWPOINT 0 0 0 1 0 0 0
POINTS 1432
DATA ascii
-0.077306233 -0.12556729 0.17300452
-0.026977297 -0.14529261 0.17292233
0.026398931 -0.14654094 0.17286545
0.078996733 -0.12603551 0.17261712
0.10726485 -0.10464652 0.17464992
-0.12311988 -0.079414047 0.17464171
0.12871015 -0.074047275 0.17396909
-0.15073922 -0.0039961101 0.17442636
-0.14424616 -0.029138979 0.17518425
0.14628564 -0.025759881 0.17392778
0.15159251 -0.013049392 0.17204557
-0.15069756 0.0094050141 0.17425799
-0.14569576 0.026125021 0.17490092
0.14692536 0.024585463 0.17314474
0.15120663 0.012604105 0.17492907
-0.12901966 0.075885862 0.17367861
0.12989566 0.07283131 0.17292194
-0.1071991 0.10666168 0.17423746
-0.074500971 0.12970458 0.17555219
-0.028019527 0.14519757 0.17414603
0.027889371 0.14456694 0.17320128
0.072737962 0.1292686 0.173107
0.10988252 0.10302892 0.17203525
-0.016984975 0.15141998 0.17612661
0.015008861 0.15187313 0.17543209
-0.0024154901 -0.15040126 0.22436127
-0.10569254 -0.10438752 0.22713816
-0.078491077 -0.12441093 0.22285073
-0.026998289 -0.14526953 0.22276673
0.026550166 -0.14647697 0.22382252
0.079116255 -0.12611604 0.22383551
0.10733847 -0.10467581 0.22329983
-0.12322613 -0.07929641 0.22463092
0.12880804 -0.073955283 0.22391233
-0.15078482 -0.003903222 0.22418836
-0.14430054 -0.029187765 0.22559306
0.14645262 -0.025448928 0.22393709
0.15161285 -0.013091624 0.22250538
-0.15072143 0.0095958682 0.22400363
-0.14608534 0.025216112 0.2254086
0.14700645 0.024318067 0.2229469
0.15145235 0.013854785 0.22168981
-0.12954018 0.075061426 0.22487068
0.13012066 0.072300658 0.22160669
-0.10667571 0.10685761 0.22410862
-0.074382715 0.12998956 0.22532187
-0.027890986 0.14528497 0.22418116
0.027811551 0.1446065 0.22277768
0.073005535 0.12869337 0.22254816
0.10947625 0.10317072 0.22272253
-0.016900975 0.15138747 0.22572009
0.014920008 0.15189716 0.22541109
-0.0022478581 -0.15043834 0.27286842
-0.10674218 -0.10366625 0.27299953
-0.078506514 -0.12410613 0.27378318
-0.027044367 -0.14526358 0.27316687
0.026683262 -0.14648685 0.2730538
0.078571603 -0.12633203 0.27361944
0.10538388 -0.106712 0.27787572
-0.1233077 -0.07911779 0.27445796
0.12891896 -0.07389012 0.27393386
-0.15083054 -0.0038104057 0.27392563
-0.14433901 -0.02926713 0.27507347
0.14599511 -0.027044762 0.27379784
0.1515948 -0.013420222 0.27250138
-0.15074916 0.0096174804 0.27355292
-0.14621116 0.024646519 0.27593064
0.14696698 0.024754599 0.27304691
0.15134464 0.012900173 0.27215216
-0.12995939 0.074564643 0.27569067
0.12965491 0.072923087 0.27352977
-0.10644681 0.10697647 0.27435777
-0.075013831 0.12966011 0.27472422
-0.028436238 0.1451426 0.27393341
0.028072435 0.14475568 0.27306563
0.073149554 0.12875129 0.27198601
0.10998505 0.10288508 0.27241272
-0.017067211 0.15145986 0.27558503
0.014831287 0.1519212 0.27535886
-0.0020714165 -0.15047726 0.32393208
-0.10693278 -0.10346387 0.32302457
-0.075983971 -0.12604472 0.32093653
-0.027562777 -0.14485981 0.3240062
0.026816161 -0.14654759 0.32378644
0.07977616 -0.12573558 0.32178748
0.10453112 -0.10709813 0.32896274
-0.12361419 -0.078785121 0.32475302
0.12897401 -0.073587261 0.3240115
-0.15087676 -0.0037164807 0.32426751
-0.14441687 -0.029273765 0.32501233
0.14642712 -0.025152111 0.3244243
0.15151152 -0.012650668 0.32110038
-0.15078683 0.0095856488 0.32382223
-0.14625531 0.024792127 0.32584685
0.14703752 0.024901154 0.32208365
0.1516968 0.013753359 0.32182661
-0.1308182 0.07341101 0.32475674
0.12938847 0.073420502 0.32243982
-0.10626003 0.10712994 0.32405099
-0.076595098 0.1279278 0.32500613
-0.02881838 0.14507289 0.32356933
0.028219363 0.14467077 0.32248563
0.074118294 0.12811188 0.32211345
0.109836 0.10324909 0.32222661
-0.01738946 0.15145215 0.3260783
0.014740651 0.1519455 0.32531136
-0.0042165043 -0.15050836 0.37314457
0.0019895833 -0.15053284 0.38251948
-0.10694809 -0.10355899 0.3733651
-0.075009383 -0.12660415 0.37314495
-0.027484437 -0.14493395 0.37316757
0.02695374 -0.14650697 0.37320521
0.076450728 -0.12811354 0.37344402
0.10394187 -0.10788162 0.3734127
-0.12344569 -0.078932486 0.37454045
0.12925313 -0.073675618 0.37362626
-0.15066013 -0.0062663727 0.37837914
-0.14451481 -0.029253779 0.37500876
0.14666559 -0.025755715 0.37364861
0.1514098 -0.011764022 0.37191379
-0.15079208 0.0098851826 0.37360492
-0.14608179 0.025825202 0.37583929
0.14694478 0.025303261 0.37246537
0.15135111 0.013905708 0.37183017
-0.13087627 0.072579265 0.37519324
0.12899989 0.074070871 0.37117693
-0.106237 0.10719979 0.37440628
-0.076236174 0.12811004 0.37489519
-0.028718377 0.1449669 0.37270677
0.028256562 0.14470457 0.37289864
0.076164 0.12713034 0.37288183
0.11000218 0.10315736 0.37210822
-0.01764841 0.15146065 0.37588516
0.014650261 0.15196976 0.37537137
-0.0055731656 -0.15055592 0.4242537
0.0021221279 -0.15055156 0.42380634
-0.10646442 -0.10395382 0.42406204
-0.074844286 -0.1266776 0.42317107
-0.027706034 -0.14493071 0.42226011
0.02708854 -0.14656818 0.42369258
0.077112786 -0.12780766 0.42315754
0.1047727 -0.10773501 0.42520428
-0.1240724 -0.07849098 0.42285731
0.12976445 -0.073503032 0.42174086
-0.1505523 -0.0076569784 0.4220196
-0.14478435 -0.029178295 0.42434222
0.14647058 -0.026938895 0.42253372
0.15123957 -0.012321847 0.42420933
-0.15082976 0.0098538073 0.42397889
-0.14666964 0.024653666 0.42437598
0.14709865 0.025304446 0.42231628
0.15142298 0.013260577 0.42394617
-0.13087805 0.072690353 0.42317122
0.12875316 0.074457578 0.4224633
-0.10716461 0.10711578 0.42406291
-0.077657044 0.1260464 0.42350054
-0.029250741 0.14481743 0.4220323
0.028305257 0.14474493 0.42255428
0.076291025 0.1270785 0.42239541
0.10951712 0.10342766 0.42021358
-0.016724003 0.15144524 0.42408064
0.014713854 0.15190269 0.42505091
-0.0053914548 -0.15060882 0.47332329
0.0056262077 -0.15024355 0.4730708
-0.10716598 -0.10337134 0.47313127
-0.075646445 -0.12651761 0.47371274
-0.027394993 -0.14520988 0.47225109
0.031667765 -0.14569227 0.47345743
0.076220959 -0.12848765 0.47408971
0.10410647 -0.10783732 0.47397178
-0.1275513 -0.074822195 0.47315779
0.12980993 -0.073219024 0.47302058
-0.15100905 -0.0034472495 0.46854612
-0.14551544 -0.028371572 0.47325915
0.14643162 -0.027551176 0.47262114
0.15110192 -0.010980104 0.47311652
-0.15079433 0.0090505742 0.4715465
-0.14710011 0.026215833 0.47280902
0.14719573 0.025614738 0.47250262
0.15133154 0.013080188 0.4713769
-0.13232031 0.071444705 0.47110415
0.12942986 0.073547803 0.47223312
-0.10757518 0.10727187 0.47079346
-0.076625556 0.12567008 0.46990681
-0.028657954 0.14438085 0.47107643
0.028545259 0.14471531 0.47270402
0.076161847 0.12692755 0.47211981
0.11029056 0.10303573 0.4719339
-0.011975388 0.15114421 0.46438411
0.015058756 0.15119317 0.46851015
-0.10552114 -0.1036699 0.50714707
-0.07552176 -0.1260291 0.50519866
-0.025989857 -0.14418612 0.50577974
0.027171612 -0.14397559 0.50730532
0.08640597 -0.12425188 0.50779241
0.10827634 -0.10699327 0.50516576
-0.1249145 -0.078366607 0.50432473
0.12955971 -0.076526292 0.50517386
-0.14264321 -0.043276455 0.50095963
0.14656805 -0.027317172 0.50695479
0.15120782 -0.010549497 0.50617266
-0.14331985 0.044959843 0.50043672
0.14691326 0.028365083 0.50755298
0.15154532 0.011609118 0.50678396
-0.12733066 0.077833861 0.50387442
0.12919384 0.074217275 0.50739157
-0.107251 0.10682081 0.50739229
-0.076465681 0.12428124 0.50684273
-0.02998955 0.14318675 0.50531328
0.029530924 0.14421435 0.5073871
0.080290742 0.12417802 0.5073427
0.11013368 0.10305572 0.50746131
-0.0089812996 -1.2501318 0.073000826
0.0034292936 -1.2504421 0.074172936
-0.10069914 -1.2039099 0.072990052
-0.085771158 -1.2160966 0.072492719
-0.028519753 -1.2474011 0.076150276
0.027428774 -1.2471738 0.070010304
0.073800072 -1.2294613 0.06920784
0.1054063 -1.2073457 0.071537025
-0.1211163 -1.1782771 0.073546752
0.13040091 -1.1754314 0.072735392
-0.14363958 -1.12518 0.07412111
0.14744516 -1.1237344 0.072465234
0.15154077 -1.1150926 0.074274167
-0.14421606 -1.071327 0.074297905
0.14598624 -1.0706239 0.072929345
0.15157649 -1.0822643 0.074420325
-0.12517115 -1.0235435 0.074037202
0.12991761 -1.0246009 0.075078599
-0.10718279 -0.99490434 0.072698787
-0.075812407 -0.97248417 0.074281514
-0.028754437 -0.95489144 0.075030237
0.02516754 -0.95343626 0.075460985
0.074654385 -0.97075397 0.075452015
0.10633536 -0.99350452 0.075006932
-0.014353381 -0.94886929 0.074750148
0.014495769 -0.94848543 0.07503628
-0.0063903211 -1.2504451 0.12986067
0.0082086585 -1.2501466 0.12703983
-0.10053768 -1.2040517 0.12338164
-0.085613325 -1.2162349 0.12200437
-0.029292224 -1.2472768 0.12438142
0.034191396 -1.2460071 0.1217262
0.072744064 -1.2300676 0.12120045
0.10594363 -1.2077512 0.12340049
-0.12230045 -1.176734 0.12537922
0.13017276 -1.1753968 0.12394673
-0.14377171 -1.1251268 0.12498491
0.14746259 -1.1241142 0.12287739
0.15149556 -1.1146576 0.12669478
-0.14405327 -1.0707763 0.12463862
0.14605437 -1.0706462 0.1248286
0.15148869 -1.0827943 0.12598148
-0.12534109 -1.0233837 0.12509592
0.12983193 -1.0245814 0.12570383
-0.10673457 -0.99452841 0.12446475
-0.076170109 -0.97250021 0.12524295
-0.028780298 -0.95484227 0.12552696
0.025130417 -0.95335507 0.12554398
0.074861862 -0.97082776 0.1263414
0.10644445 -0.99344879 0.12560561
-0.013668926 -0.94887084 0.12536657
0.014823961 -0.9483605 0.12560239
-0.0062406124 -1.2504724 0.17485788
0.0074386895 -1.2502071 0.17259099
-0.10038318 -1.2041878 0.17171817
-0.085453197 -1.2163751 0.17219096
-0.028954357 -1.247371 0.17276606
0.031905752 -1.2464797 0.17083451
0.073035821 -1.230003 0.17127754
0.10586509 -1.2072309 0.17250954
-0.12159164 -1.1777065 0.17287557
0.12968674 -1.1764177 0.17390063
-0.14366817 -1.1277636 0.17521569
0.1474288 -1.1244633 0.17266206
0.15157107 -1.1145766 0.1749396
-0.14435597 -1.0720973 0.17382239
0.14673311 -1.0728558 0.17453052
0.15156929 -1.0818951 0.17445028
-0.1252228 -1.0234387 0.1744948
0.12998979 -1.0245231 0.17461632
-0.107232 -0.99487436 0.17296921
-0.076099023 -0.97261375 0.17446344
-0.028827423 -0.95485282 0.17464964
0.025300693 -0.95335191 0.17478661
0.074818328 -0.97079688 0.17488834
0.10669371 -0.99361902 0.17498651
-0.013646742 -0.94884175 0.1745322
0.01469105 -0.94833052 0.17510682
-0.0060561597 -1.2505041 0.22077613
0.0083143394 -1.2501682 0.21780246
-0.10021987 -1.2043316 0.22276525
-0.085293077 -1.2165153 0.22236519
-0.027543284 -1.247669 0.22426182
0.030890359 -1.2467552 0.22208147
0.073625118 -1.2297679 0.22157133
0.10581212 -1.2068952 0.22166942
-0.12314426 -1.1755114 0.22287294
0.13002722 -1.1759382 0.22238258
-0.14387777 -1.1253176 0.22360632
0.14738138 -1.1248339 0.22254272
0.15156958 -1.1145171 0.2258205
-0.14439218 -1.0719142 0.22431463
0.14732888 -1.0754061 0.22377509
0.15152402 -1.0826467 0.22585762
-0.12553959 -1.023228 0.22443004
0.13001819 -1.0247471 0.22539856
-0.10694763 -0.99449658 0.22277239
-0.075807311 -0.9724825 0.22526808
-0.028688271 -0.95485008 0.22567262
0.02493931 -0.95325547 0.22572735
0.074855343 -0.97082406 0.22614941
0.10668321 -0.99355662 0.22641622
-0.016150832 -0.94894254 0.2263211
0.015025526 -0.9483394 0.22518383
-0.0058753788 -1.2505362 0.27065587
0.0082186759 -1.2501938 0.27066126
-0.10007304 -1.2044609 0.26869661
-0.087611295 -1.2146335 0.27556798
-0.02871174 -1.2474496 0.27353877
0.030957466 -1.2467887 0.27044111
0.073790483 -1.2296947 0.27064395
0.10602924 -1.2069256 0.27136046
-0.12305208 -1.1756799 0.27286935
0.13043459 -1.1752632 0.27388313
-0.14391136 -1.1245794 0.27388516
0.1474079 -1.1250205 0.27256522
0.15165253 -1.1145295 0.27577966
-0.1443691 -1.0717894 0.27401307
0.14731577 -1.0754557 0.27316076
0.15158446 -1.081853 0.27478981
-0.12549707 -1.0234367 0.27459285
0.1301394 -1.0246673 0.27426288
-0.10663956 -0.99389124 0.27347884
-0.076526761 -0.97260123 0.27422497
-0.028762829 -0.95466858 0.2748265
0.02443327 -0.95304352 0.27513438
0.074761838 -0.97078335 0.27531594
0.1067687 -0.99332243 0.27430791
-0.018324634 -0.94904649 0.27355585
0.017775938 -0.94849527 0.27609926
-0.0056949081 -1.2505682 0.32048184
0.0079738004 -1.250241 0.323733
-0.092436627 -1.2107043 0.32273096
-0.027108559 -1.2478452 0.32269868
0.030060152 -1.2469814 0.32155043
0.071946628 -1.2307462 0.31947759
0.10638048 -1.2077805 0.32103378
-0.1229903 -1.1757874 0.32306775
0.13158487 -1.1735669 0.32189396
-0.1439189 -1.1247573 0.32469475
0.14745004 -1.1245922 0.32198992
0.15167804 -1.1145662 0.32486752
-0.14452462 -1.0722916 0.32423574
0.14728153 -1.0754826 0.32415712
0.15155494 -1.0827452 0.32524431
-0.12532099 -1.0226547 0.32449839
0.13024768 -1.0245764 0.32546327
-0.1071815 -0.99426991 0.32293358
-0.076727748 -0.97286069 0.32464889
-0.028615484 -0.95466048 0.32543126
0.024526369 -0.95290291 0.32505444
0.074636832 -0.97075874 0.32546431
0.10692268 -0.99333924 0.32538086
-0.018237684 -0.94897413 0.32366806
0.017850548 -0.94854146 0.32518691
-0.0055867434 -1.2505875 0.35035372
0.0095130205 -1.250149 0.35002032
-0.092278324 -1.2108433 0.37227654
-0.027680017 -1.2477261 0.35423374
0.11012187 -1.2082247 0.37597671
-0.12286656 -1.1759713 0.37344876
0.1349524 -1.1723857 0.37488565
-0.14408368 -1.1244442 0.37416354
0.14736958 -1.1394317 0.37621871
0.15183221 -1.1145883 0.37659702
-0.14463863 -1.0729599 0.37398228
0.14770527 -1.0693115 0.37444371
0.15171422 -1.0821841 0.3752245
-0.12680276 -1.0255436 0.37451467
0.13071546 -1.0250794 0.37551579
-0.10709236 -0.99426079 0.37320408
-0.076678269 -0.97250551 0.37455064
-0.02872877 -0.95448703 0.37636939
0.024318796 -0.9527778 0.37650517
0.074316397 -0.97066861 0.37667149
0.10700903 -0.99346662 0.37561592
-0.018122373 -0.94896877 0.37420696
0.018392412 -0.94853461 0.37488317
-0.092115723 -1.210986 0.42317963
0.10995944 -1.2084255 0.42346174
-0.1227654 -1.1761796 0.4229165
0.13497773 -1.1723524 0.42611778
-0.1440478 -1.1245294 0.42433578
0.14735027 -1.13949 0.42559552
0.15192804 -1.1141907 0.4254019
-0.14456317 -1.0726382 0.42428711
0.14773673 -1.0697176 0.42615265
0.15167955 -1.0828105 0.42573857
-0.12711523 -1.0254773 0.42424515
0.13035284 -1.0240526 0.42605522
-0.10652774 -0.99423748 0.42389882
-0.076854587 -0.97253078 0.42434841
-0.029090058 -0.95461488 0.42427972
0.024211694 -0.95271993 0.42500144
0.07390672 -0.97047913 0.42532036
0.10720518 -0.99333882 0.42523676
-0.017829889 -0.94900644 0.42394847
0.018389389 -0.94860154 0.42509237
-0.091958031 -1.2111248 0.47270361
0.10978739 -1.208638 0.47378922
-0.12270575 -1.1765236 0.47446957
0.13496956 -1.1722947 0.47590771
-0.14409998 -1.1244293 0.47429538
0.1473067 -1.1394407 0.47591352
0.15207937 -1.1140505 0.47617429
-0.14445774 -1.0722333 0.47438142
0.1476462 -1.069003 0.4756813
0.15179309 -1.0822517 0.47522211
-0.1270366 -1.0257256 0.47426262
0.12958974 -1.0233552 0.4758319
-0.10671265 -0.99429482 0.47416162
-0.076483004 -0.97208333 0.47483769
-0.02857447 -0.95452499 0.47532111
0.024144135 -0.9527694 0.47471714
0.076520786 -0.97203201 0.47563234
0.10746471 -0.99347007 0.4762612
-0.015881371 -0.94867301 0.4728514
0.017804058 -0.94829416 0.47503018
-0.089363754 -1.2132486 0.50634289
0.10966718 -1.2087865 0.50891995
-0.12156023 -1.1783345 0.5066306
0.13643646 -1.1698076 0.50810361
-0.14431143 -1.1240252 0.50633419
0.14732318 -1.1386569 0.50885767
0.15263195 -1.1129619 0.50969124
-0.14348052 -1.0684856 0.50760603
0.14740162 -1.0665368 0.50877362
0.15174215 -1.0838019 0.50880748
-0.12590283 -1.0249262 0.5078367
0.12958732 -1.0225977 0.50847203
-0.10700083 -0.99484992 0.50782776
-0.078059934 -0.97412503 0.50811666
-0.029695166 -0.95447564 0.50904155
0.028030671 -0.95353884 0.50746012
0.076601297 -0.97185558 0.50879014
0.10719008 -0.99349076 0.50930732
-0.011571417 -0.94859385 0.50702214
0.018991904 -0.94845724 0.50681651
-0.0081591299 0.94964647 0.075999066
0.016201196 0.94879824 0.075433798
-0.10671908 0.99368268 0.075204007
-0.077541411 0.97375929 0.075434007
-0.028637627 0.95517075 0.075204588
0.024642266 0.95369291 0.075079538
0.07566236 0.97189653 0.07472422
0.1063146 0.99379969 0.073220327
-0.12741847 1.0237217 0.075197741
0.12633593 1.0231787 0.074791446
-0.15082511 1.0860664 0.074771747
-0.1464733 1.0733974 0.075083837
0.14476688 1.0718982 0.074206986
0.15094216 1.0886703 0.072624333
-0.15114446 1.1141226 0.074993826
-0.14765884 1.1247551 0.074451901
0.14483814 1.1280639 0.074081831
0.1507525 1.1059374 0.076573826
-0.13171063 1.1737123 0.074260376
0.12645495 1.1748353 0.071928121
-0.1101054 1.2062328 0.0776949
-0.083647385 1.2245544 0.075378947
-0.026998771 1.2445891 0.073750995
0.026607323 1.2450271 0.074590616
0.074893437 1.2277341 0.070559569
0.10350025 1.2074713 0.071126945
-0.0078797676 0.94966763 0.12600374
0.017179588 0.94872111 0.12275188
-0.1065044 0.99326724 0.12651731
-0.077362925 0.97381622 0.1256226
-0.028766533 0.95513552 0.12499638
0.024618404 0.95365357 0.12516674
0.075581379 0.97196192 0.12417664
0.10584103 0.99293506 0.12317982
-0.12755969 1.0237948 0.12567461
0.12594122 1.022571 0.12469363
-0.15085885 1.0862557 0.12482941
-0.14650662 1.0737407 0.12568237
0.1447541 1.0721406 0.12454001
0.15079142 1.0888438 0.12547541
-0.15122618 1.1136385 0.12484527
-0.14766735 1.12501 0.12475844
0.14453584 1.1291308 0.12453421
0.15074947 1.1072432 0.12890843
-0.13092831 1.1751444 0.12468735
0.12621517 1.1749157 0.1234751
-0.10934563 1.2067832 0.1259411
-0.081504658 1.2255002 0.12377355
-0.027276581 1.2444763 0.12514676
0.025784029 1.2453128 0.12792401
0.073934816 1.2282 0.12425372
0.10363983 1.2075086 0.12168732
-0.0077084913 0.94962865 0.17617697
0.016176291 0.94868064 0.17342114
-0.10614979 0.99279284 0.17491749
-0.077261589 0.97377062 0.17524719
-0.028976444 0.95515597 0.17488374
0.024784319 0.95369935 0.17517786
0.07571356 0.97195715 0.1749482
0.10636116 0.99344838 0.17460641
-0.12756929 1.0233918 0.17469209
0.12598585 1.0227872 0.17481901
-0.15088339 1.0865586 0.17429116
-0.14601295 1.0717245 0.17587249
0.14477834 1.0722432 0.17362913
0.15066618 1.0882804 0.1715326
-0.15122156 1.1133387 0.17479204
-0.1477495 1.1245483 0.17482825
0.14506616 1.1278838 0.174226
0.15075459 1.1073861 0.1733118
-0.13204366 1.1731905 0.17436834
0.12662731 1.1746771 0.17211163
-0.10896327 1.2068603 0.17570892
-0.078558899 1.2266004 0.17567159
-0.02797368 1.2443885 0.17684838
0.024876397 1.2453477 0.17425235
0.07527703 1.2275119 0.17160751
0.10369892 1.207543 0.17089835
-0.0061596246 0.94947058 0.22146666
0.014847913 0.94859213 0.22379331
-0.10624041 0.99328727 0.22466519
-0.077091955 0.9736861 0.22515644
-0.028856251 0.95518464 0.22466618
0.024795711 0.953623 0.22515288
0.076050848 0.97198641 0.22416341
0.10592809 0.99282992 0.22295745
-0.12647834 1.0221763 0.22535864
0.1260664 1.0231633 0.2247649
-0.15097548 1.0855446 0.22412109
-0.14668092 1.0743843 0.22509407
0.1448182 1.0720052 0.22380921
0.1507553 1.0886729 0.22262724
-0.15126491 1.112918 0.22454806
-0.14783704 1.1255082 0.22472647
0.14462693 1.129063 0.22308464
0.15040238 1.1111691 0.22644535
-0.13187329 1.1734917 0.22473259
0.12675709 1.1747665 0.2223918
-0.10996402 1.2069768 0.22589931
-0.078352869 1.2266579 0.22523192
-0.029138079 1.2439442 0.22449461
0.025378963 1.2453762 0.22366999
0.075027697 1.2277316 0.22162211
0.10427114 1.2070599 0.22232519
-0.0088666035 0.94962746 0.27801016
0.01534643 0.9486174 0.27346686
-0.10619068 0.99335611 0.27450565
-0.076029532 0.97299343 0.27439842
-0.029133564 0.95516968 0.27487373
0.024398616 0.95338094 0.27456832
0.076918736 0.97256243 0.27412966
0.10595857 0.99280381 0.2732037
-0.12764868 1.023491 0.27461234
0.12590802 1.0227518 0.27438974
-0.15102549 1.0852816 0.27435309
-0.14715905 1.0740533 0.27536389
0.14474924 1.0720634 0.27363142
0.15061897 1.0875067 0.27174115
-0.15103297 1.1172171 0.2762683
-0.14757864 1.1302142 0.27472574
0.14499302 1.1277359 0.27335101
0.15044571 1.1113613 0.27510077
-0.13170904 1.174235 0.27399117
0.1266603 1.1747223 0.27308062
-0.10860113 1.2079145 0.27358383
-0.078755222 1.226377 0.27478924
-0.029993789 1.2438165 0.27429235
0.024847336 1.2454878 0.27192128
0.075577363 1.2275361 0.27238464
0.10411802 1.2073073 0.2690056
-0.0090285335 0.94959581 0.32500511
0.016381448 0.94873595 0.32052597
-0.10615229 0.99330884 0.32476962
-0.075754702 0.97300315 0.32575947
-0.029270535 0.95498574 0.32479021
0.024640229 0.95329183 0.32423726
0.077820517 0.9732219 0.32359231
0.10599759 0.99284488 0.3227255
-0.12812577 1.0239711 0.3258352
0.12589134 1.0226935 0.32435846
-0.15109569 1.0852396 0.32443693
-0.14725991 1.0734328 0.326565
0.14477117 1.0720632 0.32414597
0.15069561 1.0876825 0.3223255
-0.15106311 1.1193769 0.32434455
-0.14782956 1.1305758 0.32577035
0.14508501 1.1270102 0.32192066
0.15039787 1.11113 0.32629088
-0.130978 1.1760185 0.32548383
0.12772651 1.173436 0.32302755
-0.10480056 1.2110081 0.32459164
-0.077132508 1.2272457 0.3247861
-0.030211158 1.2439247 0.32492691
0.024954066 1.2454398 0.32192805
0.077627569 1.2263826 0.32339877
0.1049714 1.2065618 0.32687458
-0.0085669709 0.94948822 0.37368903
0.019664241 0.94897932 0.37378752
-0.10564508 0.99215472 0.37635833
-0.075462893 0.97263646 0.37535819
-0.029392188 0.95500338 0.37516534
0.024345446 0.95327753 0.37471008
0.078051478 0.97351211 0.37392449
0.10613785 0.99295717 0.37312803
-0.12750109 1.0234683 0.37467226
0.12617828 1.0236192 0.37330499
-0.15098388 1.0856475 0.37645581
-0.1470603 1.0715599 0.37403807
0.14443226 1.0716051 0.37408462
0.15070632 1.0878334 0.35417902
-0.15132819 1.1183157 0.37453783
-0.14769799 1.131735 0.37505478
0.14440288 1.1262563 0.37141877
0.15049151 1.1064792 0.35418975
-0.13069887 1.1767616 0.37448215
0.12452315 1.1755601 0.37308961
-0.10473452 1.2111077 0.37340471
-0.078857914 1.2266324 0.3660453
-0.036188841 1.2424053 0.36007082
0.024818683 1.2455117 0.35246247
-0.0083865281 0.94946051 0.42438641
0.021010743 0.94911897 0.42223409
-0.10453591 0.9909026 0.42468381
-0.074162088 0.97131205 0.42463812
-0.029382888 0.95495713 0.42486399
0.025298972 0.95360231 0.42427108
0.078142859 0.97351354 0.42383996
0.10596745 0.99277741 0.42317834
-0.12775686 1.0232584 0.4261598
0.12629507 1.0244125 0.42490587
-0.15086898 1.0854582 0.42741448
-0.14672644 1.0667475 0.42662188
0.14436565 1.0717083 0.42392695
-0.15143748 1.1185994 0.42490596
-0.14787969 1.1321967 0.42483649
0.14382856 1.1275039 0.42257023
-0.1298539 1.1789856 0.42473072
0.12375063 1.1766443 0.42412859
-0.1021019 1.2134439 0.42467538
-0.0084517784 0.9494164 0.47248638
0.020298462 0.94900131 0.4730472
-0.10401133 0.99065328 0.47467962
-0.074144401 0.97104275 0.47467324
-0.028803425 0.95495993 0.4745298
0.025752058 0.95396429 0.47396275
0.077509381 0.97286391 0.47254011
0.10647385 0.99338204 0.47283286
-0.12843537 1.0243777 0.47378084
0.12695789 1.0251899 0.47275463
-0.15088919 1.0844995 0.47705469
-0.14675839 1.0666764 0.47581294
0.14458992 1.0716182 0.47366467
-0.15158051 1.1191738 0.47478735
-0.14690901 1.1379589 0.47335285
0.14416549 1.1264366 0.47354701
-0.13137764 1.1778492 0.4731828
0.12373659 1.1768099 0.47214603
-0.1038668 1.2123206 0.46868479
-0.004711844 0.94923484 0.50693202
0.017886586 0.94844246 0.50807643
-0.10266469 0.9884038 0.50468689
-0.074287236 0.97112608 0.50463641
-0.027447121 0.95414001 0.50750852
0.02574035 0.95327395 0.50706118
0.076256566 0.97100747 0.50772321
0.10686181 0.99328178 0.50771427
-0.12481457 1.0162308 0.5035283
0.12918901 1.0279428 0.50777906
-0.15106586 1.0848392 0.50704229
-0.14557487 1.0576537 0.5081619
0.14564273 1.0725476 0.50804514
-0.15164566 1.1201005 0.50610703
-0.14693642 1.1379551 0.50415677
0.14516687 1.123244 0.50751036
-0.13192208 1.1775421 0.50722641
0.125222 1.1747444 0.50669765
-0.10590392 1.2109091 0.50598419
-1.1155399 0.94857502 0.073887981
-1.0815094 0.94845301 0.072975203
-1.2068843 0.99341828 0.076049916
-1.1770947 0.97136271 0.073686704
-1.1252546 0.95374864 0.074338712
-1.0706457 0.9552148 0.074377052
-1.0223302 0.97186935 0.074473567
-0.99119073 0.99347705 0.073514976
-1.2298878 1.0252706 0.074852869
-0.97003704 1.0255523 0.073160626
-1.2514006 1.0861429 0.075203069
-1.2471098 1.0669405 0.0765284
-0.95525318 1.0724357 0.073579118
-0.9489637 1.0842785 0.071570799
-1.2509791 1.1166117 0.071260132
-1.2481272 1.1295601 0.074127614
-0.95392174 1.1244732 0.07353235
-0.94933808 1.1101736 0.071808517
-1.2344959 1.1668259 0.075917982
-0.97647661 1.1801037 0.073314741
-1.1225799 1.2428701 0.071417153
-1.0757917 1.242455 0.072922066
-1.0190613 1.2217188 0.073126353
-0.99481881 1.2045139 0.073729694
-1.1186775 0.94895405 0.12691124
-1.0826955 0.94840437 0.12536082
-1.2067695 0.99357611 0.12648317
-1.1765441 0.97119433 0.12647666
-1.1250408 0.9538089 0.12494881
-1.0708934 0.95512617 0.12510687
-1.0219743 0.97240746 0.12506127
-0.99088323 0.99380964 0.12446751
-1.2299097 1.0252115 0.12546173
-0.97004056 1.0253023 0.1251801
-1.2514503 1.0865782 0.12481208
-1.2475154 1.068743 0.12461029
-0.95521861 1.0720017 0.1260753
-0.94894385 1.0842324 0.1220783
-1.2512825 1.1107565 0.1250124
-1.2482048 1.1299773 0.1241146
-0.95385188 1.1244426 0.1239013
-0.94930255 1.1101822 0.12193599
-1.2340858 1.1676592 0.12640966
-0.97646976 1.1801695 0.12360793
-1.1224715 1.2428954 0.12183397
-1.0757263 1.2424676 0.12242077
-1.0211729 1.2229819 0.12357104
-0.99490803 1.2046415 0.12388108
-1.11901 0.9489252 0.17550713
-1.081272 0.94838321 0.17582269
-1.2072967 0.99364871 0.17708482
-1.1757418 0.97033268 0.17512061
-1.1251757 0.95378113 0.17493552
-1.0710717 0.95500982 0.17484571
-1.0224078 0.97154707 0.17481646
-0.99117005 0.99342769 0.17341086
-1.2299744 1.0253054 0.17447218
-0.9704566 1.0250279 0.17401607
-1.2514285 1.086516 0.1750422
-1.2467953 1.0648731 0.1752179
-0.95524204 1.0724581 0.1749122
-0.9488495 1.0852579 0.17264181
-1.2512786 1.1106242 0.17475912
-1.2481233 1.1306968 0.17302942
-0.9541319 1.1243075 0.17404762
-0.94926721 1.1101902 0.17221273
-1.2336761 1.1684915 0.17611544
-0.97645527 1.1802083 0.17358555
-1.1223646 1.2429199 0.17147234
-1.0773259 1.2426969 0.17372179
-1.0202968 1.2224058 0.17433715
-0.99505788 1.2047985 0.17337094
-1.1200784 0.94888163 0.22425286
-1.0830494 0.94854569 0.226007
-1.2073174 0.99388748 0.22565231
-1.1758226 0.97036421 0.22475483
-1.1252126 0.9537133 0.22465265
-1.0739472 0.95418161 0.2236248
-1.0219918 0.97217458 0.22484347
-0.99136478 0.99335098 0.22395596
-1.230081 1.0253745 0.22459972
-0.97074443 1.0246413 0.22450051
-1.2513272 1.0850368 0.22657196
-1.2469368 1.0658088 0.22438106
-0.95479125 1.0725442 0.22506623
-0.94877106 1.0857277 0.22221498
-1.251268 1.1099641 0.22474733
-1.2474849 1.1343172 0.2245
-0.95481604 1.1278328 0.22460102
-0.94911861 1.1093483 0.22252871
-1.2385623 1.1597944 0.22176816
-0.97605515 1.179888 0.22304152
-1.1222565 1.2429451 0.22183649
-1.072682 1.2420835 0.22216722
-1.0212934 1.2231505 0.22112614
-0.99490011 1.204458 0.22369146
-1.1193666 0.94877696 0.27332145
-1.0824214 0.94883204 0.27291116
-1.2071818 0.99358958 0.27477115
-1.1762849 0.97038519 0.27462521
-1.1253848 0.95371383 0.2743842
-1.0703487 0.95515221 0.2742072
-1.0222887 0.97160965 0.27443266
-0.99170738 0.99301779 0.27312568
-1.2301625 1.0254275 0.27463737
-0.97116172 1.0239931 0.27240896
-1.251145 1.0818716 0.27519792
-1.2471061 1.0667424 0.27480435
-0.95491952 1.0719603 0.27374989
-0.94880754 1.0855403 0.2721628
-1.251264 1.1099094 0.27516103
-1.2469981 1.1354966 0.27462736
-0.95515436 1.1284388 0.27367947
-0.94908828 1.1098994 0.27258188
-1.2410355 1.1554935 0.27514356
-0.97311115 1.1756134 0.27440763
-1.1221534 1.242969 0.26973277
-1.0764416 1.2426153 0.27265632
-1.0236602 1.2243961 0.27200806
-0.99373609 1.2029457 0.27371967
-1.1191474 0.94872606 0.32475266
-1.081304 0.9487831 0.32599342
-1.2093781 0.99527997 0.32617435
-1.1762379 0.97017455 0.3245362
-1.1249375 0.95335037 0.32501999
-1.0738785 0.95357621 0.32666165
-1.022244 0.97169429 0.32657933
-0.99189931 0.99243164 0.32484752
-1.2304835 1.0257416 0.3250117
-0.97168857 1.0233305 0.32467183
-1.2513109 1.0819671 0.32631865
-1.2468652 1.0648681 0.32565033
-0.95462525 1.0717731 0.32402304
-0.94884902 1.0847763 0.32359356
-1.2515081 1.1111057 0.32520801
-1.2477843 1.1345452 0.32379994
-0.95492941 1.1262081 0.32434222
-0.94893485 1.108875 0.32193282
-1.2409374 1.1558174 0.32783616
-0.97175229 1.1735588 0.32286245
-1.1220305 1.2429975 0.32698852
-1.0749632 1.2424926 0.32252637
-1.0226526 1.2238739 0.32323804
-0.99379271 1.2026701 0.32397464
-1.1189487 0.94868708 0.37662494
-1.0824423 0.94878519 0.37485117
-1.2077332 0.99396265 0.37591821
-1.1760167 0.96939439 0.37492332
-1.1249058 0.95326746 0.37649128
-1.0739295 0.95349222 0.3758387
-1.0215226 0.97190106 0.3752133
-0.99150354 0.99246001 0.37492266
-1.2311913 1.0268258 0.37613323
-0.97141325 1.0239884 0.37505105
-1.2511319 1.0816925 0.3758437
-1.2474163 1.0676001 0.37724674
-0.95445973 1.0723407 0.37456676
-0.94876415 1.0856868 0.37218627
-1.2518557 1.1103817 0.37558302
-1.2481879 1.1320553 0.37496313
-0.95443666 1.1250019 0.37336636
-0.94889259 1.1088059 0.37254837
-1.2411531 1.155719 0.37079808
-0.9717381 1.1735148 0.37303522
-1.1219174 1.2430236 0.37952206
-1.0811652 1.2433009 0.37271702
-1.0229352 1.2240225 0.37231815
-0.9938038 1.2027838 0.37403333
-1.1192865 0.94868189 0.42549157
-1.0813687 0.9487462 0.42417774
-1.2086555 0.99419677 0.42441392
-1.1758935 0.96943808 0.42542854
-1.1248956 0.9532361 0.42620224
-1.073949 0.95376587 0.42514801
-1.0223621 0.97153598 0.42417568
-0.99159771 0.99231637 0.42351475
-1.2311734 1.0269142 0.42556608
-0.97158843 1.0233672 0.4241989
-1.2511007 1.0817597 0.42589441
-1.2477109 1.0690354 0.4257946
-0.9545759 1.0727355 0.42481387
-0.94881737 1.0853399 0.42199048
-1.2519846 1.1099718 0.4253625
-1.2485125 1.132025 0.42486039
-0.95447111 1.1266729 0.4230881
-0.94890314 1.1095622 0.42389327
-1.2420425 1.154636 0.42576519
-0.97167313 1.1734607 0.42285523
-1.1218207 1.2430462 0.42452717
-1.0787464 1.2430829 0.42058405
-1.0234989 1.2243539 0.42221087
-0.99516565 1.2041219 0.42315635
-1.1193504 0.94866037 0.47337079
-1.0817813 0.94856721 0.4765121
-1.2160604 0.99628866 0.47438827
-1.174639 0.96621424 0.47599593
-1.1432073 0.95262605 0.47479472
-1.0652791 0.9537608 0.47375298
-1.0223634 0.97078884 0.47494119
-0.99252218 0.9920283 0.47464564
-1.2323815 1.028761 0.45364317
-0.97131097 1.0239445 0.4737663
-1.2513247 1.086707 0.45544502
-1.2484251 1.0718158 0.45625758
-0.95533758 1.0690526 0.47445846
-0.94876987 1.0854646 0.47228336
-1.2516898 1.1099579 0.46074155
-1.2484088 1.1324286 0.45880678
-0.95464587 1.127355 0.47097418
-0.94889385 1.1092454 0.47207084
-1.2420785 1.1545279 0.46425846
-0.97185796 1.1740689 0.47278085
-1.1217072 1.2430725 0.47700545
-1.0797497 1.2431906 0.47369698
-1.0221083 1.2237642 0.47287938
-0.99537724 1.2043965 0.47332987
-1.1191975 0.94862473 0.50715542
-1.0801681 0.94859612 0.50958985
-1.216105 0.99633598 0.5088743
-1.1753398 0.96676171 0.50798136
-1.1432298 0.95261371 0.5083673
-1.0598507 0.95353281 0.5079748
-1.0237255 0.96853334 0.50805068
-0.99062985 0.99268961 0.50985938
-0.97078222 1.0239434 0.50815302
-0.95575529 1.0637197 0.50850868
-0.948915 1.082817 0.50676507
-0.95455635 1.1292497 0.50682533
-0.94912058 1.1115638 0.50600123
-0.96945959 1.1709417 0.5064308
-1.1216342 1.2430897 0.51072824
-1.0764463 1.242831 0.50552404
-1.0286243 1.227246 0.50630414
-0.99783874 1.2067474 0.50513154
0.95662785 -1.1286585 0.02967925
0.95485121 -1.0724401 0.030661279
0.99224633 -1.2027943 0.075364009
1.0241176 -1.2246175 0.074521616
1.0700352 -1.2428734 0.072976261
1.1247126 -1.2449192 0.074391291
1.174469 -1.2280673 0.076197036
1.2054994 -1.2052349 0.076587379
0.97452623 -1.1744447 0.074785016
1.2276043 -1.1754556 0.076275781
0.94799393 -1.1136439 0.073245831
0.95660216 -1.1287413 0.074970998
1.2471957 -1.1317166 0.074704699
1.2513659 -1.1126848 0.073757991
0.94720823 -1.0782076 0.074458346
0.95525968 -1.0716393 0.075025633
1.2471272 -1.0672663 0.074391991
1.2512426 -1.0906895 0.073978953
0.96868682 -1.0255828 0.075524196
1.2307367 -1.0269346 0.074044049
0.98970115 -0.99352294 0.075193629
1.023384 -0.97110832 0.075576767
1.0746243 -0.95407516 0.074649833
1.1245174 -0.95427489 0.07402119
1.1757922 -0.97127777 0.073056482
1.2063026 -0.99407959 0.073811047
1.078337 -0.94678307 0.076339431
1.1201037 -0.94646889 0.076725289
0.99248618 -1.2028636 0.12466757
1.0251859 -1.2252542 0.12461078
1.0707413 -1.2431142 0.12472142
1.1243571 -1.2448534 0.12531936
1.1747061 -1.227932 0.12636623
1.2059824 -1.2047497 0.12982126
0.97468835 -1.1746335 0.12528826
1.2276559 -1.175395 0.12640591
0.94774169 -1.1101856 0.12549235
0.95650285 -1.1284581 0.12546286
1.2473873 -1.1311741 0.12668082
1.2514001 -1.1125176 0.12424246
0.9471609 -1.0787289 0.12563574
0.95517504 -1.0717086 0.12536252
1.247268 -1.0676446 0.12473275
1.2512497 -1.0904852 0.12423942
0.96834838 -1.0250092 0.12574843
1.2310021 -1.0273173 0.12475627
0.98968124 -0.9935323 0.12620963
1.0234321 -0.97105283 0.12640242
1.074737 -0.95413452 0.1251446
1.1246129 -0.95420408 0.12473322
1.1747674 -0.97164047 0.12474743
1.2075729 -0.99543154 0.12924229
1.0789592 -0.94673145 0.12702096
1.1193312 -0.94666988 0.12553354
0.99259245 -1.2029253 0.17429814
1.0252144 -1.2253898 0.17493054
1.0710449 -1.2434623 0.17379379
1.1248177 -1.2447412 0.17508432
1.1750942 -1.2277439 0.17629386
1.2066596 -1.2040447 0.17649151
0.97451001 -1.1744341 0.17426334
1.2281247 -1.1745876 0.17628556
0.94794804 -1.1125643 0.17760041
0.95660836 -1.1288379 0.1750938
1.247434 -1.1309255 0.17291652
1.2514337 -1.1123556 0.17349362
0.94710606 -1.0789454 0.17527083
0.95529473 -1.0717522 0.17460884
1.2474831 -1.0682087 0.17434636
1.2510353 -1.0867609 0.17341968
0.96815693 -1.025231 0.17467563
1.2310972 -1.0274343 0.17435236
0.99156398 -0.99291158 0.17433891
1.0230478 -0.97132224 0.17597906
1.0747198 -0.95406908 0.17452234
1.1246414 -0.95418495 0.1743997
1.1750221 -0.97171342 0.17471313
1.208636 -0.99649113 0.17520013
1.0788482 -0.94662255 0.17339082
1.1212022 -0.9463641 0.17294048
0.99297673 -1.20316 0.22022563
1.0229092 -1.223998 0.22203864
1.0708485 -1.2430702 0.2234669
1.1242497 -1.2447124 0.22309126
1.1730946 -1.2284698 0.21672899
1.2067734 -1.2039572 0.21604753
0.97449273 -1.1742851 0.22399464
1.2289832 -1.1732529 0.21983019
0.94801414 -1.1129653 0.22156818
0.95667744 -1.1288291 0.22548801
1.2474951 -1.1307555 0.22432381
1.2514679 -1.1121864 0.22355716
0.94742692 -1.0758799 0.2232824
0.95529836 -1.0718178 0.22484899
1.247538 -1.0682358 0.22437704
1.2510468 -1.0866255 0.22384158
0.96867067 -1.0247979 0.2248906
1.2311071 -1.027456 0.22438481
0.99219102 -0.99265552 0.22642729
1.023182 -0.97139877 0.22467683
1.0747724 -0.95411134 0.2243191
1.1254755 -0.95425296 0.22441448
1.1749991 -0.97164279 0.22451709
1.2086182 -0.99641293 0.22501938
1.0785544 -0.94661635 0.22217917
1.1213763 -0.94640118 0.22320481
0.99489546 -1.2052152 0.27240014
1.0217565 -1.2236812 0.27117208
1.0724111 -1.2441192 0.27265248
1.1218375 -1.2450895 0.27240303
1.1548545 -1.2374309 0.27154756
0.97534448 -1.1761819 0.27223366
0.94992244 -1.1049044 0.27123749
0.95619535 -1.1287673 0.27574813
1.248459 -1.1302735 0.27394751
1.2515016 -1.1120224 0.27360773
0.94960117 -1.0971949 0.27238569
0.95515716 -1.0718445 0.27582297
1.2475485 -1.0681119 0.27452475
1.2510586 -1.0864968 0.27289322
0.97191322 -1.0251492 0.27386844
1.2308922 -1.0270176 0.27501911
0.99312741 -0.99249548 0.27516314
1.0235282 -0.97084337 0.27349916
1.0750301 -0.95405436 0.27419373
1.1258025 -0.95427644 0.27459395
1.1749519 -0.97163379 0.27457967
1.2086 -0.9963342 0.27528155
1.0785534 -0.94663012 0.27399725
1.1206385 -0.94658393 0.27624738
0.99473888 -1.205528 0.31733572
1.0232128 -1.2248005 0.32053769
1.0725163 -1.244539 0.32304174
1.1232512 -1.2449553 0.32175013
1.1547178 -1.2374761 0.31707746
0.97563189 -1.176697 0.32137108
1.2413127 -1.1589191 0.32483894
0.94989693 -1.1049994 0.31644177
0.95633799 -1.128691 0.32509637
1.2485322 -1.129932 0.32429066
1.2515349 -1.1118616 0.32321107
0.94961536 -1.0957541 0.31699777
0.95527154 -1.0718163 0.32667401
1.2476982 -1.0683439 0.32313576
1.2510705 -1.0863616 0.32370454
0.97228271 -1.0257908 0.32541114
1.2310911 -1.0272604 0.32442582
0.99331087 -0.99243444 0.32517716
1.0235462 -0.97071534 0.32357386
1.0750413 -0.95395797 0.32442382
1.1260422 -0.95429391 0.32448292
1.1747825 -0.97145712 0.32466325
1.2079775 -0.99568337 0.32632333
1.0785998 -0.94660091 0.32582888
1.1194708 -0.94656134 0.32703874
1.0072575 -1.2088417 0.37606883
1.0977279 -1.2478719 0.35126036
1.1319203 -1.2431872 0.35720408
0.97786212 -1.1765695 0.3750236
1.241538 -1.1582295 0.37405792
0.95692509 -1.1287408 0.37425029
1.2457674 -1.1424781 0.37821037
1.2511462 -1.1140229 0.3737933
0.95543373 -1.0731666 0.3745515
1.2471569 -1.0657389 0.37413204
1.2510823 -1.0862311 0.37377253
0.97252798 -1.0257919 0.37599745
1.2308626 -1.0267935 0.37505221
0.9935416 -0.99228495 0.3744671
1.0235996 -0.97067547 0.37425774
1.0738196 -0.95420212 0.37549421
1.1262274 -0.95424402 0.3744635
1.1746947 -0.97134972 0.37463748
1.2083789 -0.99605322 0.37451592
1.0786519 -0.94653541 0.37659496
1.1223038 -0.94669586 0.37443048
1.0070419 -1.2086887 0.42776933
0.97856647 -1.1776412 0.42520946
1.241766 -1.1575311 0.42388374
0.95681882 -1.1290872 0.42432469
1.2458622 -1.1421958 0.42437935
1.2511779 -1.1138732 0.42414179
0.95484209 -1.0750154 0.42514569
1.2471592 -1.0655931 0.42432016
1.2510943 -1.0860975 0.4237968
0.97245485 -1.0257885 0.42577451
1.2311555 -1.0273125 0.42361045
0.99354947 -0.99223697 0.4236581
1.0234967 -0.97069991 0.42457607
1.0732954 -0.95438004 0.42417836
1.1266418 -0.95430779 0.42450172
1.1714689 -0.96969211 0.42470375
1.2064968 -0.99426627 0.42450222
1.0786734 -0.94658422 0.42635798
1.1210262 -0.94666702 0.42466506
1.0068482 -1.2085513 0.47427779
0.97811389 -1.1767592 0.47514087
1.2419937 -1.1568339 0.47365063
0.95666218 -1.1284648 0.47338265
1.2458725 -1.1427324 0.4698391
1.2514794 -1.1131757 0.47355691
0.95476305 -1.0751688 0.47593039
1.2473966 -1.0653054 0.47375485
1.251191 -1.0862228 0.47351661
0.97253114 -1.0255363 0.47567099
1.2303119 -1.0257009 0.47307476
0.99352348 -0.99243504 0.47435224
1.0236509 -0.97059202 0.47479776
1.0746945 -0.95408177 0.47397333
1.1268697 -0.95450163 0.47385013
1.1754754 -0.97202218 0.46910194
1.2055219 -0.99311495 0.46995598
1.0806481 -0.94626224 0.47518349
1.1211686 -0.94669729 0.47644728
1.0067188 -1.2084596 0.50527191
0.97576952 -1.1737931 0.50851339
1.2421304 -1.1564158 0.5034849
0.95672977 -1.1279782 0.50756186
1.2456548 -1.1450908 0.50471723
1.2513956 -1.1162561 0.50525492
0.95452917 -1.0742722 0.50893366
1.2491007 -1.0691969 0.50073594
1.2513099 -1.0855567 0.50352865
0.97207588 -1.0263367 0.5093658
0.99386042 -0.99223489 0.50915176
1.0208062 -0.97195178 0.50747073
1.0615804 -0.95408475 0.50843126
1.1295811 -0.95067358 0.50933039
1.0810252 -0.94595915 0.50816554
1.1212496 -0.94671446 0.50872523
-1.1140796 -1.2509612 0.074285701
-1.0895505 -1.2514619 0.074513145
-1.1273665 -1.2492694 0.07637611
-1.0645683 -1.2471988 0.073085338
-1.022125 -1.2286233 0.073053144
-0.99364889 -1.2073365 0.073760614
-1.2244469 -1.1765646 0.072534017
-0.97053611 -1.1741832 0.073609382
-1.2443643 -1.1255786 0.074091829
-0.95340705 -1.1238916 0.073765084
-0.94921589 -1.1111823 0.076917991
-1.2430801 -1.0701762 0.072905183
-0.95536208 -1.0711166 0.073745385
-0.94920582 -1.087877 0.07607729
-1.222459 -1.0207886 0.073994599
-0.97206223 -1.0264281 0.074688897
-1.2059628 -0.996342 0.077982083
-1.1763893 -0.97418618 0.07295537
-1.1285985 -0.95567536 0.073967636
-1.0714494 -0.95512706 0.075348884
-1.0224456 -0.9738704 0.074596405
-0.99285871 -0.99337214 0.076680779
-1.108549 -0.949067 0.072432876
-1.0873256 -0.9494161 0.071446806
-1.1142336 -1.2509662 0.1243701
-1.0891769 -1.2512816 0.1252456
-1.1273658 -1.2492759 0.12488915
-1.0647284 -1.2472979 0.12414449
-1.0232557 -1.2293925 0.12614514
-0.99343014 -1.2068549 0.12427886
-1.2246585 -1.1762897 0.12216476
-0.97005081 -1.1736131 0.12471743
-1.2444732 -1.1252078 0.12386771
-0.95337486 -1.1238847 0.12407742
-0.94917303 -1.1110314 0.12774706
-1.2431962 -1.0708994 0.12384872
-0.95533454 -1.0711771 0.12384675
-0.9491908 -1.0877006 0.12598661
-1.2230161 -1.0216717 0.12480312
-0.97189188 -1.0267946 0.12512544
-1.2065829 -0.99662805 0.11987212
-1.1763202 -0.97396833 0.12344979
-1.1285816 -0.95557225 0.12387757
-1.0711367 -0.95513284 0.12576964
-1.0215408 -0.97436965 0.12518631
-0.99105126 -0.99493688 0.12334535
-1.1116182 -0.94918883 0.12475599
-1.0879257 -0.94936019 0.12110113
-1.1140163 -1.2509941 0.17320308
-1.0889776 -1.2512581 0.1755738
-1.1273652 -1.2492822 0.17130263
-1.0646113 -1.2472997 0.17296812
-1.0246956 -1.230216 0.17385888
-0.99334508 -1.2068053 0.17385107
-1.2248956 -1.1758302 0.17102507
-0.96929312 -1.1726134 0.17396399
-1.2444053 -1.1253183 0.17359331
-0.95332164 -1.124069 0.17357691
-0.94918585 -1.1125087 0.17292894
-1.243511 -1.0712763 0.17221263
-0.95531076 -1.0710822 0.17381079
-0.94912583 -1.0880332 0.17469542
-1.2234395 -1.0221348 0.17388709
-0.97189409 -1.026704 0.17491381
-1.2041895 -0.99471122 0.17311795
-1.1761311 -0.9739868 0.17307463
-1.1284678 -0.95551735 0.17391336
-1.070989 -0.95523423 0.17517468
-1.0219979 -0.97400004 0.1740635
-0.99114913 -0.9949156 0.1738552
-1.1117628 -0.94925445 0.16966027
-1.087829 -0.94937563 0.17083797
-1.1139531 -1.251001 0.22374749
-1.0879047 -1.2511455 0.22385089
-1.1273644 -1.2492893 0.22324622
-1.0647503 -1.2473674 0.22305764
-1.0246226 -1.2303113 0.22391316
-0.99353158 -1.2070541 0.22469203
-1.2253575 -1.1748754 0.22273228
-0.96919435 -1.1725334 0.22431861
-1.2441612 -1.126704 0.22274697
-0.95326179 -1.1240551 0.22407202
-0.94925624 -1.1160929 0.22531618
-1.2445747 -1.0750757 0.22288834
-0.95525551 -1.0711545 0.2238252
-0.94907027 -1.0882626 0.22461772
-1.2228947 -1.0218642 0.22357517
-0.97188407 -1.0265342 0.2242661
-1.2052048 -0.99504101 0.22293465
-1.1760472 -0.9739579 0.22312289
-1.1283712 -0.95555341 0.22390477
-1.0709214 -0.95516109 0.22467762
-1.0225886 -0.97366244 0.22414643
-0.99133456 -0.9947176 0.22374935
-1.110769 -0.94926786 0.2222921
-1.0894525 -0.94929123 0.22229509
-1.1143924 -1.250972 0.2740334
-1.088155 -1.2511642 0.27358794
-1.1273638 -1.2492963 0.27535588
-1.0648559 -1.2474217 0.27279514
-1.0245922 -1.2302407 0.27392784
-0.9930315 -1.2066309 0.27359682
-1.2253754 -1.1751938 0.27386397
-0.96891671 -1.172071 0.27421337
-1.2441024 -1.1270641 0.27359757
-0.95315003 -1.1239127 0.27405715
-0.94920689 -1.1159012 0.27584442
-1.2446918 -1.0751964 0.27318218
-0.95514107 -1.0713995 0.27390611
-0.94905543 -1.0880859 0.2744658
-1.2233341 -1.0223087 0.27356651
-0.97284228 -1.0251696 0.27563718
-1.2051668 -0.99483526 0.27324194
-1.1763653 -0.97406894 0.27301413
-1.1282313 -0.95567143 0.27378339
-1.0706553 -0.95517761 0.27493793
-1.0250447 -0.97190398 0.2749224
-0.99175459 -0.99430847 0.2740553
-1.1102636 -0.94946945 0.27167055
-1.0897517 -0.94925845 0.27201509
-1.1145558 -1.2509216 0.32355848
-1.0881311 -1.2511998 0.32391471
-1.127363 -1.2493029 0.32371879
-1.0648459 -1.2473819 0.32309103
-1.0251211 -1.2305821 0.32397005
-0.99296242 -1.2066294 0.32383913
-1.2234193 -1.1786416 0.306382
-0.96912986 -1.1725876 0.32489797
-1.2443269 -1.1241044 0.32233265
-0.95305663 -1.1239133 0.32427621
-0.94915748 -1.1157097 0.32634267
-1.2435162 -1.0720503 0.3233743
-0.95508063 -1.0713354 0.32403311
-0.94904053 -1.0879092 0.32429022
-1.2235637 -1.0229009 0.32341999
-0.97454613 -1.0224783 0.32427651
-1.2040091 -0.99542886 0.32430691
-1.1761143 -0.97424221 0.32336548
-1.1279287 -0.95585859 0.32355958
-1.0707307 -0.95526958 0.32561916
-1.0254689 -0.97150552 0.32470164
-0.99177611 -0.99418956 0.32293415
-1.1079142 -0.94959593 0.32218677
-1.0899248 -0.94948018 0.32209671
-1.1170592 -1.2509345 0.3741875
-1.0871985 -1.2513485 0.37498206
-1.1273626 -1.249307 0.35457116
-1.0607641 -1.2469182 0.37448415
-1.0240866 -1.2303264 0.37686062
-0.99427134 -1.2082062 0.37659615
-0.97027206 -1.1745683 0.37500593
-1.244735 -1.1209962 0.35352913
-0.95292908 -1.1239116 0.37463504
-0.94911224 -1.1149458 0.3768869
-1.2424343 -1.0693352 0.37531221
-0.95500594 -1.0715671 0.37443066
-0.94903553 -1.0876307 0.3745575
-1.2232136 -1.023093 0.3742995
-0.97458869 -1.0220182 0.37501195
-1.2034451 -0.99599636 0.37410074
-1.1789738 -0.97633255 0.37380511
-1.1281885 -0.95616943 0.37450594
-1.0732526 -0.95493799 0.37412727
-1.0262492 -0.9713313 0.37482828
-0.9913038 -0.99429423 0.37367219
-1.1028408 -0.94987488 0.37196019
-1.0945189 -0.9495858 0.3724018
-1.1191324 -1.2507968 0.42365947
-1.0875025 -1.2514489 0.42365605
-1.0614927 -1.2472622 0.42423025
-1.025342 -1.2312127 0.42478603
-0.99379027 -1.2077498 0.42550439
-0.97126675 -1.1760954 0.42368969
-0.95297563 -1.123018 0.42378289
-0.94906247 -1.1160474 0.41652709
-1.2424935 -1.0721799 0.42521638
-0.95495731 -1.0719371 0.42331761
-0.94885999 -1.0860327 0.42041805
-1.2230273 -1.0230434 0.4235217
-0.97460115 -1.021803 0.42372233
-1.2047355 -0.99727792 0.42403093
-1.1760427 -0.97444975 0.42365053
-1.1280566 -0.95596874 0.42477512
-1.0733796 -0.95458609 0.42281917
-1.0273545 -0.97041619 0.4239136
-0.99193633 -0.99393743 0.42336923
-1.1028112 -0.94983339 0.42229813
-1.0939294 -0.94960499 0.42259365
-1.1186182 -1.2507989 0.47287592
-1.0823388 -1.2510883 0.47176334
-1.0604188 -1.246882 0.47314447
-1.0251596 -1.2313944 0.47393331
-0.99445838 -1.2082407 0.47365612
-0.97159779 -1.1762882 0.47312513
-0.95314074 -1.123331 0.47261074
-0.94894946 -1.1220365 0.47180724
-1.2430295 -1.0806357 0.47107157
-0.95485759 -1.072014 0.47266605
-0.94881439 -1.0843368 0.47252354
-1.2234976 -1.0243336 0.47310179
-0.97420371 -1.0214158 0.47328115
-1.2037302 -0.99630928 0.47387329
-1.1755883 -0.97393435 0.47187534
-1.1257399 -0.95504749 0.47380584
-1.0699952 -0.95386064 0.47313437
-1.0287173 -0.9691053 0.47395465
-0.99162138 -0.99385267 0.47275844
-1.1027832 -0.94979239 0.47190961
-1.0939029 -0.94956911 0.47235599
-1.1136874 -1.2509426 0.51120007
-1.0830699 -1.2514131 0.50698471
-1.0603228 -1.2470553 0.50766599
-1.0234517 -1.2300903 0.5072397
-0.99602038 -1.21009 0.50536257
-0.96942675 -1.1730012 0.50710988
-0.9534356 -1.1261433 0.50712007
-0.94890779 -1.121796 0.50896466
-1.2426733 -1.0788951 0.5064919
-0.95516342 -1.0709068 0.50679797
-0.94835931 -1.0887059 0.5083608
-1.2240593 -1.02469 0.50544822
-0.97199082 -1.0241452 0.50791782
-1.204998 -0.9980545 0.50803638
-1.1746831 -0.9732219 0.5074389
-1.1248207 -0.95465261 0.50852489
-1.069905 -0.95395255 0.50791049
-1.0279731 -0.96893692 0.50837511
-0.99233133 -0.99297321 0.50764227
-1.1027654 -0.94976562 0.5043869
-1.0923165 -0.94974226 0.5050261
-0.95391273 -0.026959445 0.030180553
-1.1130607 -0.15112759 0.074386343
-1.0921415 -0.15093544 0.073949032
-1.205056 -0.10536257 0.07436014
-1.1717789 -0.13045047 0.073999643
-1.1281492 -0.14510526 0.073647127
-1.0738295 -0.146164 0.073486298
-1.0277107 -0.13023622 0.073586151
-0.99386853 -0.10645035 0.073618263
-1.2276735 -0.075535662 0.074797891
-0.97083586 -0.07370656 0.073993474
-1.2508372 -1.4364719e-05 0.083277717
-1.2465043 -0.025108375 0.073653638
-0.95373201 -0.026872911 0.074193873
-0.94966203 -0.0042916476 0.074465886
-1.2504758 0.0067594647 0.072330445
-1.2447556 0.029183278 0.073695913
-0.95594579 0.030531321 0.073951691
-0.94982356 0.0040393113 0.074346587
-1.2283833 0.074097767 0.072754338
-0.97139156 0.072778717 0.074175209
-1.206558 0.10541556 0.073059842
-1.1766862 0.1264645 0.074167244
-1.1236173 0.14639522 0.074026667
-1.0712259 0.14465705 0.073704556
-1.0240569 0.12655801 0.074248023
-0.99631184 0.1078146 0.073278412
-1.1010802 0.15018815 0.07408344
-1.1129383 -0.1511725 0.12524836
-1.0886383 -0.15062246 0.12523726
-1.2067068 -0.10386024 0.12851842
-1.1741238 -0.12878644 0.12582108
-1.1284527 -0.14506938 0.12367078
-1.0738298 -0.14618331 0.12371516
-1.0277321 -0.13035555 0.12564652
-0.99381757 -0.1064413 0.12598987
-1.2272627 -0.077328332 0.12586716
-0.97092831 -0.073702782 0.12538402
-1.2465326 -0.02537265 0.12393273
-0.95386964 -0.027024023 0.12592213
-0.94965333 -0.0041774362 0.12592852
-1.2505503 0.0059638591 0.12348384
-1.2447035 0.028941425 0.12391866
-0.95590103 0.030698944 0.1259755
-0.94978154 0.0039206566 0.12594619
-1.2279497 0.074526004 0.12341075
-0.97031641 0.071038261 0.12564264
-1.2063541 0.10542766 0.12291874
-1.1752706 0.1276526 0.12347443
-1.1234456 0.14644131 0.12422579
-1.0712496 0.14477831 0.12421554
